# .PCD v0.7 - Point Cloud Data file format
VERSION 0.7
FIELDS x y z
SIZE 4 4 4
TYPE F F F
COUNT 1 1 1
WIDTH 1419
HEIGHT 1
VIEWPOINT 0 0 0 1 0 0 0
POINTS 1419
DATA ascii
1.0607661 -0.42577928 0.27235845
1.0415714 -0.42577928 0.33842707
1.0182661 -0.42577928 0.40316007
0.99094218 -0.42577928 0.46630198
0.95970744 -0.42577928 0.52760363
0.92468512 -0.42577928 0.58682305
0.88601357 -0.42577928 0.64372653
0.84384531 -0.42577928 0.69808954
0.79834676 -0.42577928 0.74969751
0.74969751 -0.42577928 0.79834676
0.69808954 -0.42577928 0.84384531
0.64372653 -0.42577928 0.88601357
0.58682305 -0.42577928 0.92468512
0.52760363 -0.42577928 0.95970744
0.46630198 -0.42577928 0.99094218
0.40316007 -0.42577928 1.0182661
0.33842707 -0.42577928 1.0415714
0.27235845 -0.42577928 1.0607661
0.20521496 -0.42577928 1.0757744
0.13726157 -0.42577928 1.0865372
0.068766482 -0.42577928 1.093012
1.9657223e-09 -0.42577928 1.095173
-0.068766482 -0.42577928 1.093012
-0.13726157 -0.42577928 1.0865372
-0.20521495 -0.42577928 1.0757744
-0.27235845 -0.42577928 1.0607661
-0.33842707 -0.42577928 1.0415714
-0.40316007 -0.42577928 1.0182661
-0.46630198 -0.42577928 0.99094218
-0.52760363 -0.42577928 0.95970744
-0.58682305 -0.42577928 0.92468512
-0.64372653 -0.42577928 0.88601357
-0.69808954 -0.42577928 0.84384531
-0.74969751 -0.42577928 0.79834676
-0.79834676 -0.42577928 0.74969751
-0.84384531 -0.42577928 0.69808954
-0.88601357 -0.42577928 0.64372653
-0.92468512 -0.42577928 0.58682305
-0.95970744 -0.42577928 0.52760363
-0.99094218 -0.42577928 0.46630198
-1.0182661 -0.42577928 0.40316007
-1.0415714 -0.42577928 0.33842707
-1.0607661 -0.42577928 0.27235845
-1.0757744 -0.42577928 0.20521496
-1.0865372 -0.42577928 0.13726158
-1.093012 -0.42577928 0.068766482
-1.095173 -0.42577928 3.9314445e-09
-1.093012 -0.42577928 -0.068766475
-1.0865372 -0.42577928 -0.13726157
-1.0757744 -0.42577928 -0.20521495
-1.0607661 -0.42577928 -0.27235845
-1.0415714 -0.42577928 -0.33842707
-1.0182661 -0.42577928 -0.40316007
-0.99094218 -0.42577928 -0.46630198
-0.95970744 -0.42577928 -0.52760363
-0.92468518 -0.42577928 -0.58682305
-0.88601357 -0.42577928 -0.64372653
-0.84384531 -0.42577928 -0.69808954
-0.79834676 -0.42577928 -0.74969751
-0.74969751 -0.42577928 -0.79834676
-0.69808954 -0.42577928 -0.84384531
-0.64372653 -0.42577928 -0.88601357
-0.58682305 -0.42577928 -0.92468512
-0.52760363 -0.42577928 -0.95970744
-0.46630198 -0.42577928 -0.99094218
-0.40316007 -0.42577928 -1.0182661
-0.33842707 -0.42577928 -1.0415714
-0.27235845 -0.42577928 -1.0607661
-0.20521496 -0.42577928 -1.0757744
-0.13726158 -0.42577928 -1.0865372
-0.06876649 -0.42577928 -1.093012
-5.8971663e-09 -0.42577928 -1.095173
0.068766475 -0.42577928 -1.093012
0.13726157 -0.42577928 -1.0865372
0.20521495 -0.42577928 -1.0757744
0.27235845 -0.42577928 -1.0607661
0.33842707 -0.42577928 -1.0415714
0.40316007 -0.42577928 -1.0182661
0.46630198 -0.42577928 -0.99094218
0.52760363 -0.42577928 -0.95970744
0.58682305 -0.42577928 -0.92468518
0.64372653 -0.42577928 -0.88601357
0.69808954 -0.42577928 -0.84384531
0.74969751 -0.42577928 -0.79834676
0.79834676 -0.42577928 -0.74969751
0.84384531 -0.42577928 -0.69808954
0.88601357 -0.42577928 -0.64372653
0.92468512 -0.42577928 -0.58682305
0.95970744 -0.42577928 -0.52760363
0.99094218 -0.42577928 -0.46630198
1.0182661 -0.42577928 -0.40316007
1.0415714 -0.42577928 -0.33842707
1.0607661 -0.42577928 -0.27235845
1.0757744 -0.42577928 -0.20521496
1.0865372 -0.42577928 -0.13726158
1.093012 -0.42577928 -0.06876649
1.1236933 -0.48175368 0
1.1214761 -0.48175368 0.070557289
1.1148326 -0.48175368 0.14083612
1.1037897 -0.48175368 0.21055913
1.0883905 -0.48175368 0.27945116
1.0686959 -0.48175368 0.34724033
1.0447836 -0.48175368 0.4136591
1.0167482 -0.48175368 0.47844535
0.98469996 -0.48175368 0.54134339
0.9487657 -0.48175368 0.60210502
0.909087 -0.48175368 0.66049039
0.86582059 -0.48175368 0.71626908
0.81913722 -0.48175368 0.76922101
0.76922101 -0.48175368 0.81913722
0.71626908 -0.48175368 0.86582059
0.66049039 -0.48175368 0.909087
0.60210502 -0.48175368 0.9487657
0.54134339 -0.48175368 0.98469996
0.47844535 -0.48175368 1.0167482
0.41365913 -0.48175368 1.0447836
0.34724033 -0.48175368 1.0686959
0.27945116 -0.48175368 1.0883905
0.21055914 -0.48175368 1.1037897
0.14083612 -0.48175368 1.1148326
0.070557289 -0.48175368 1.1214761
2.0169133e-09 -0.48175368 1.1236933
-0.070557289 -0.48175368 1.1214761
-0.14083612 -0.48175368 1.1148326
-0.21055913 -0.48175368 1.1037897
-0.27945116 -0.48175368 1.0883905
-0.34724033 -0.48175368 1.0686959
-0.4136591 -0.48175368 1.0447837
-0.47844535 -0.48175368 1.0167482
-0.54134339 -0.48175368 0.98469996
-0.60210502 -0.48175368 0.9487657
-0.66049039 -0.48175368 0.909087
-0.71626908 -0.48175368 0.86582059
-0.76922101 -0.48175368 0.81913722
-0.81913722 -0.48175368 0.76922101
-0.86582059 -0.48175368 0.71626908
-0.909087 -0.48175368 0.66049039
-0.9487657 -0.48175368 0.60210502
-0.98469996 -0.48175368 0.54134339
-1.0167482 -0.48175368 0.47844535
-1.0447836 -0.48175368 0.41365913
-1.0686959 -0.48175368 0.34724036
-1.0883905 -0.48175368 0.27945116
-1.1037897 -0.48175368 0.21055914
-1.1148326 -0.48175368 0.14083612
-1.1214761 -0.48175368 0.070557296
-1.1236933 -0.48175368 4.0338266e-09
-1.1214761 -0.48175368 -0.070557281
-1.1148326 -0.48175368 -0.14083612
-1.1037897 -0.48175368 -0.21055913
-1.0883905 -0.48175368 -0.27945116
-1.0686959 -0.48175368 -0.34724033
-1.0447837 -0.48175368 -0.4136591
-1.0167482 -0.48175368 -0.47844535
-0.98469996 -0.48175368 -0.54134339
-0.9487657 -0.48175368 -0.60210502
-0.909087 -0.48175368 -0.66049039
-0.86582059 -0.48175368 -0.71626908
-0.81913722 -0.48175368 -0.76922101
-0.76922101 -0.48175368 -0.81913722
-0.71626908 -0.48175368 -0.86582059
-0.66049039 -0.48175368 -0.909087
-0.60210502 -0.48175368 -0.9487657
-0.54134339 -0.48175368 -0.98469996
-0.47844535 -0.48175368 -1.0167482
-0.41365913 -0.48175368 -1.0447836
-0.34724036 -0.48175368 -1.0686959
-0.27945119 -0.48175368 -1.0883905
-0.21055914 -0.48175368 -1.1037897
-0.14083612 -0.48175368 -1.1148326
-0.070557296 -0.48175368 -1.1214759
-6.0507395e-09 -0.48175368 -1.1236933
0.070557281 -0.48175368 -1.1214761
0.14083612 -0.48175368 -1.1148326
0.21055913 -0.48175368 -1.1037897
0.27945116 -0.48175368 -1.0883905
0.34724033 -0.48175368 -1.0686959
0.4136591 -0.48175368 -1.0447837
0.47844535 -0.48175368 -1.0167482
0.54134339 -0.48175368 -0.98469996
0.60210502 -0.48175368 -0.9487657
0.66049039 -0.48175368 -0.909087
0.71626908 -0.48175368 -0.86582059
0.76922101 -0.48175368 -0.81913722
0.81913722 -0.48175368 -0.76922101
0.86582059 -0.48175368 -0.71626908
0.909087 -0.48175368 -0.66049039
0.9487657 -0.48175368 -0.60210502
0.98469996 -0.48175368 -0.54134339
1.0167482 -0.48175368 -0.47844535
1.0447836 -0.48175368 -0.41365913
1.0686959 -0.48175368 -0.34724036
1.0883905 -0.48175368 -0.27945119
1.1037897 -0.48175368 -0.21055914
1.1148326 -0.48175368 -0.14083613
1.1214759 -0.48175368 -0.070557296
1.1556721 -0.5358268 0
1.1533916 -0.5358268 0.07256525
1.1465592 -0.5358268 0.14484411
1.1352019 -0.5358268 0.21655135
1.1193645 -0.5358268 0.28740397
1.0991094 -0.5358268 0.3571223
1.0745168 -0.5358268 0.42543125
1.0456834 -0.5358268 0.49206123
1.0127232 -0.5358268 0.55674928
0.97576618 -0.5358268 0.61924005
0.93495834 -0.5358268 0.67928702
0.89046061 -0.5358268 0.73665309
0.84244871 -0.5358268 0.79111195
0.79111195 -0.5358268 0.84244871
0.73665309 -0.5358268 0.89046061
0.67928702 -0.5358268 0.93495834
0.61924005 -0.5358268 0.97576618
0.55674928 -0.5358268 1.0127232
0.49206123 -0.5358268 1.0456834
0.42543128 -0.5358268 1.0745168
0.3571223 -0.5358268 1.0991094
0.28740397 -0.5358268 1.1193645
0.21655135 -0.5358268 1.1352019
0.14484411 -0.5358268 1.1465592
0.07256525 -0.5358268 1.1533916
2.0743118e-09 -0.5358268 1.1556721
-0.07256525 -0.5358268 1.1533916
-0.14484411 -0.5358268 1.1465592
-0.21655135 -0.5358268 1.1352019
-0.28740394 -0.5358268 1.1193645
-0.3571223 -0.5358268 1.0991094
-0.42543125 -0.5358268 1.0745168
-0.49206123 -0.5358268 1.0456834
-0.55674928 -0.5358268 1.0127232
-0.61924005 -0.5358268 0.97576618
-0.67928702 -0.5358268 0.93495834
-0.73665309 -0.5358268 0.89046061
-0.79111195 -0.5358268 0.84244871
-0.84244871 -0.5358268 0.79111195
-0.89046061 -0.5358268 0.73665309
-0.93495834 -0.5358268 0.67928702
-0.97576618 -0.5358268 0.61924005
-1.0127232 -0.5358268 0.55674928
-1.0456834 -0.5358268 0.49206123
-1.0745168 -0.5358268 0.42543128
-1.0991094 -0.5358268 0.3571223
-1.1193645 -0.5358268 0.28740397
-1.1352019 -0.5358268 0.21655136
-1.1465592 -0.5358268 0.14484411
-1.1533916 -0.5358268 0.072565258
-1.1556721 -0.5358268 4.1486237e-09
-1.1533916 -0.5358268 -0.072565243
-1.1465592 -0.5358268 -0.14484411
-1.1352019 -0.5358268 -0.21655135
-1.1193645 -0.5358268 -0.28740394
-1.0991094 -0.5358268 -0.3571223
-1.0745168 -0.5358268 -0.42543125
-1.0456834 -0.5358268 -0.49206123
-1.0127232 -0.5358268 -0.55674928
-0.97576618 -0.5358268 -0.61924005
-0.93495834 -0.5358268 -0.67928702
-0.89046061 -0.5358268 -0.73665309
-0.84244871 -0.5358268 -0.79111195
-0.79111201 -0.5358268 -0.84244865
-0.73665309 -0.5358268 -0.89046061
-0.67928702 -0.5358268 -0.93495834
-0.61924005 -0.5358268 -0.97576618
-0.55674928 -0.5358268 -1.0127232
-0.49206123 -0.5358268 -1.0456834
-0.42543128 -0.5358268 -1.0745168
-0.3571223 -0.5358268 -1.0991094
-0.28740397 -0.5358268 -1.1193645
-0.21655136 -0.5358268 -1.1352019
-0.14484413 -0.5358268 -1.1465592
-0.072565258 -0.5358268 -1.1533916
-6.2229351e-09 -0.5358268 -1.1556721
0.072565243 -0.5358268 -1.1533916
0.14484411 -0.5358268 -1.1465592
0.21655135 -0.5358268 -1.1352019
0.28740394 -0.5358268 -1.1193645
0.3571223 -0.5358268 -1.0991094
0.42543125 -0.5358268 -1.0745168
0.49206123 -0.5358268 -1.0456834
0.55674928 -0.5358268 -1.0127232
0.61924005 -0.5358268 -0.97576618
0.67928702 -0.5358268 -0.93495834
0.73665309 -0.5358268 -0.89046067
0.79111195 -0.5358268 -0.84244871
0.84244865 -0.5358268 -0.79111201
0.89046061 -0.5358268 -0.73665309
0.93495834 -0.5358268 -0.67928702
0.97576618 -0.5358268 -0.61924005
1.0127232 -0.5358268 -0.55674928
1.0456834 -0.5358268 -0.49206126
1.0745168 -0.5358268 -0.42543128
1.0991094 -0.5358268 -0.35712233
1.1193645 -0.5358268 -0.28740397
1.1352019 -0.5358268 -0.21655136
1.1465592 -0.5358268 -0.14484413
1.1533916 -0.5358268 -0.072565258
1.1909831 -0.58778524 0
1.188633 -0.58778524 0.074782446
1.1815917 -0.58778524 0.14926976
1.1698874 -0.58778524 0.22316797
1.1535661 -0.58778524 0.29618543
1.1326922 -0.58778524 0.36803401
1.1073481 -0.58778524 0.4384301
1.0776337 -0.58778524 0.50709593
1.0436664 -0.58778524 0.57376045
1.0055803 -0.58778524 0.63816065
0.96352553 -0.58778524 0.70004225
0.91766822 -0.58778524 0.75916117
0.86818928 -0.58778524 0.81528401
0.81528401 -0.58778524 0.86818928
0.75916117 -0.58778524 0.91766822
0.70004231 -0.58778524 0.96352553
0.63816065 -0.58778524 1.0055803
0.57376045 -0.58778524 1.0436664
0.50709593 -0.58778524 1.0776337
0.4384301 -0.58778524 1.1073481
0.36803401 -0.58778524 1.1326922
0.29618543 -0.58778524 1.1535661
0.22316797 -0.58778524 1.1698874
0.14926976 -0.58778524 1.1815917
0.074782446 -0.58778524 1.188633
2.1376914e-09 -0.58778524 1.1909831
-0.074782446 -0.58778524 1.188633
-0.14926976 -0.58778524 1.1815917
-0.22316797 -0.58778524 1.1698874
-0.29618543 -0.58778524 1.1535661
-0.36803401 -0.58778524 1.1326922
-0.4384301 -0.58778524 1.1073481
-0.50709593 -0.58778524 1.0776337
-0.57376045 -0.58778524 1.0436664
-0.63816065 -0.58778524 1.0055803
-0.70004225 -0.58778524 0.96352553
-0.75916117 -0.58778524 0.91766822
-0.81528401 -0.58778524 0.86818928
-0.86818928 -0.58778524 0.81528401
-0.91766822 -0.58778524 0.75916117
-0.96352553 -0.58778524 0.70004231
-1.0055803 -0.58778524 0.63816065
-1.0436664 -0.58778524 0.57376045
-1.0776337 -0.58778524 0.50709593
-1.1073481 -0.58778524 0.4384301
-1.1326922 -0.58778524 0.36803401
-1.1535661 -0.58778524 0.29618543
-1.1698874 -0.58778524 0.22316797
-1.1815917 -0.58778524 0.14926976
-1.188633 -0.58778524 0.074782446
-1.1909831 -0.58778524 4.2753827e-09
-1.188633 -0.58778524 -0.074782439
-1.1815917 -0.58778524 -0.14926976
-1.1698874 -0.58778524 -0.22316797
-1.1535661 -0.58778524 -0.29618543
-1.1326922 -0.58778524 -0.36803401
-1.1073481 -0.58778524 -0.4384301
-1.0776337 -0.58778524 -0.50709593
-1.0436664 -0.58778524 -0.57376045
-1.0055803 -0.58778524 -0.63816065
-0.96352553 -0.58778524 -0.70004225
-0.91766822 -0.58778524 -0.75916117
-0.86818928 -0.58778524 -0.81528401
-0.81528401 -0.58778524 -0.86818928
-0.75916117 -0.58778524 -0.91766822
-0.70004231 -0.58778524 -0.96352553
-0.63816065 -0.58778524 -1.0055803
-0.57376045 -0.58778524 -1.0436664
-0.50709593 -0.58778524 -1.0776337
-0.4384301 -0.58778524 -1.1073481
-0.36803401 -0.58778524 -1.1326922
-0.29618543 -0.58778524 -1.1535661
-0.22316797 -0.58778524 -1.1698874
-0.14926976 -0.58778524 -1.1815917
-0.074782453 -0.58778524 -1.188633
-6.4130736e-09 -0.58778524 -1.1909831
0.074782439 -0.58778524 -1.188633
0.14926974 -0.58778524 -1.1815917
0.22316797 -0.58778524 -1.1698874
0.29618543 -0.58778524 -1.1535661
0.36803401 -0.58778524 -1.1326922
0.4384301 -0.58778524 -1.1073481
0.50709593 -0.58778524 -1.0776337
0.57376045 -0.58778524 -1.0436664
0.63816065 -0.58778524 -1.0055803
0.70004225 -0.58778524 -0.96352553
0.75916117 -0.58778524 -0.91766822
0.81528401 -0.58778524 -0.86818928
0.86818928 -0.58778524 -0.81528401
0.91766822 -0.58778524 -0.75916117
0.96352553 -0.58778524 -0.70004231
1.0055803 -0.58778524 -0.63816065
1.0436664 -0.58778524 -0.57376045
1.0776337 -0.58778524 -0.50709593
1.1073481 -0.58778524 -0.4384301
1.1326922 -0.58778524 -0.36803401
1.1535661 -0.58778524 -0.29618546
1.1698874 -0.58778524 -0.22316799
1.1815917 -0.58778524 -0.14926976
1.188633 -0.58778524 -0.074782453
1.2294867 -0.63742399 0
1.2270606 -0.63742399 0.077200107
1.2197919 -0.63742399 0.15409555
1.2077091 -0.63742399 0.23038283
1.1908602 -0.63742399 0.30576092
1.1693113 -0.63742399 0.37993228
1.1431478 -0.63742399 0.45260423
1.1124728 -0.63742399 0.52348995
1.0774074 -0.63742399 0.59230971
1.03809 -0.63742399 0.6587919
0.99467564 -0.63742399 0.72267413
0.94733578 -0.63742399 0.78370434
0.89625722 -0.63742399 0.84164155
0.84164155 -0.63742399 0.89625722
0.78370434 -0.63742399 0.94733578
0.72267413 -0.63742399 0.99467564
0.6587919 -0.63742399 1.03809
0.59230971 -0.63742399 1.0774074
0.52348995 -0.63742399 1.1124728
0.45260423 -0.63742399 1.1431478
0.37993228 -0.63742399 1.1693113
0.30576092 -0.63742399 1.1908602
0.23038283 -0.63742399 1.2077091
0.15409555 -0.63742399 1.2197919
0.077200115 -0.63742399 1.2270606
2.2068014e-09 -0.63742399 1.2294867
-0.077200107 -0.63742399 1.2270606
-0.15409555 -0.63742399 1.2197919
-0.23038283 -0.63742399 1.2077091
-0.30576092 -0.63742399 1.1908602
-0.37993228 -0.63742399 1.1693113
-0.45260423 -0.63742399 1.1431478
-0.52348995 -0.63742399 1.1124728
-0.59230971 -0.63742399 1.0774074
-0.6587919 -0.63742399 1.03809
-0.72267413 -0.63742399 0.99467564
-0.78370434 -0.63742399 0.94733578
-0.84164155 -0.63742399 0.89625722
-0.89625722 -0.63742399 0.84164155
-0.94733578 -0.63742399 0.78370434
-0.99467564 -0.63742399 0.72267413
-1.03809 -0.63742399 0.6587919
-1.0774074 -0.63742399 0.59230971
-1.1124728 -0.63742399 0.52348995
-1.1431478 -0.63742399 0.45260423
-1.1693113 -0.63742399 0.37993228
-1.1908602 -0.63742399 0.30576092
-1.2077091 -0.63742399 0.23038284
-1.2197919 -0.63742399 0.15409555
-1.2270606 -0.63742399 0.077200115
-1.2294867 -0.63742399 4.4136028e-09
-1.2270606 -0.63742399 -0.077200107
-1.2197919 -0.63742399 -0.15409555
-1.2077091 -0.63742399 -0.23038283
-1.1908602 -0.63742399 -0.30576089
-1.1693113 -0.63742399 -0.37993228
-1.1431478 -0.63742399 -0.45260423
-1.1124729 -0.63742399 -0.52348995
-1.0774074 -0.63742399 -0.59230971
-1.03809 -0.63742399 -0.6587919
-0.99467564 -0.63742399 -0.72267413
-0.94733578 -0.63742399 -0.78370434
-0.89625722 -0.63742399 -0.84164155
-0.84164155 -0.63742399 -0.89625722
-0.78370434 -0.63742399 -0.94733578
-0.72267413 -0.63742399 -0.99467564
-0.6587919 -0.63742399 -1.03809
-0.59230971 -0.63742399 -1.0774074
-0.52349001 -0.63742399 -1.1124728
-0.45260423 -0.63742399 -1.1431478
-0.37993228 -0.63742399 -1.1693113
-0.30576092 -0.63742399 -1.1908602
-0.23038284 -0.63742399 -1.2077091
-0.15409555 -0.63742399 -1.2197919
-0.077200115 -0.63742399 -1.2270606
-6.6204038e-09 -0.63742399 -1.2294867
0.0772001 -0.63742399 -1.2270606
0.15409553 -0.63742399 -1.2197919
0.23038283 -0.63742399 -1.2077091
0.30576089 -0.63742399 -1.1908602
0.37993228 -0.63742399 -1.1693113
0.45260423 -0.63742399 -1.1431478
0.52348995 -0.63742399 -1.1124729
0.59230971 -0.63742399 -1.0774074
0.6587919 -0.63742399 -1.03809
0.72267413 -0.63742399 -0.99467564
0.78370434 -0.63742399 -0.94733578
0.84164155 -0.63742399 -0.89625722
0.89625722 -0.63742399 -0.84164155
0.94733578 -0.63742399 -0.78370434
0.99467564 -0.63742399 -0.72267413
1.03809 -0.63742399 -0.6587919
1.0774074 -0.63742399 -0.59230977
1.1124728 -0.63742399 -0.52349001
1.1431478 -0.63742399 -0.45260426
1.1693113 -0.63742399 -0.37993228
1.1908602 -0.63742399 -0.30576092
1.2077091 -0.63742399 -0.23038284
1.2197919 -0.63742399 -0.15409555
1.2270606 -0.63742399 -0.077200115
1.2710314 -0.68454713 0
1.2685233 -0.68454713 0.079808719
1.2610089 -0.68454713 0.15930247
1.2485179 -0.68454713 0.23816752
1.2310996 -0.68454713 0.31609264
1.2088227 -0.68454713 0.39277029
1.1817751 -0.68454713 0.46789786
1.1500636 -0.68454713 0.54117882
1.1138133 -0.68454713 0.61232406
1.0731673 -0.68454713 0.68105268
1.028286 -0.68454713 0.7470935
0.97934651 -0.68454713 0.81018591
0.92654198 -0.68454713 0.87008083
0.87008083 -0.68454713 0.92654198
0.81018591 -0.68454713 0.97934651
0.7470935 -0.68454713 1.028286
0.68105268 -0.68454713 1.0731673
0.61232406 -0.68454713 1.1138133
0.54117882 -0.68454713 1.1500636
0.46789786 -0.68454713 1.1817751
0.39277029 -0.68454713 1.2088227
0.31609264 -0.68454713 1.2310996
0.23816754 -0.68454713 1.2485179
0.15930247 -0.68454713 1.2610089
0.079808719 -0.68454713 1.2685233
2.2813698e-09 -0.68454713 1.2710314
-0.079808719 -0.68454713 1.2685233
-0.15930247 -0.68454713 1.2610089
-0.23816752 -0.68454713 1.2485179
-0.31609264 -0.68454713 1.2310996
-0.39277029 -0.68454713 1.2088227
-0.46789786 -0.68454713 1.1817751
-0.54117882 -0.68454713 1.1500636
-0.61232406 -0.68454713 1.1138133
-0.68105268 -0.68454713 1.0731673
-0.7470935 -0.68454713 1.028286
-0.81018591 -0.68454713 0.97934651
-0.87008083 -0.68454713 0.92654198
-0.92654198 -0.68454713 0.87008083
-0.97934651 -0.68454713 0.81018591
-1.028286 -0.68454713 0.7470935
-1.0731673 -0.68454713 0.68105268
-1.1138133 -0.68454713 0.61232406
-1.1500636 -0.68454713 0.54117882
-1.1817751 -0.68454713 0.46789786
-1.2088227 -0.68454713 0.39277029
-1.2310996 -0.68454713 0.31609264
-1.2485179 -0.68454713 0.23816754
-1.2610089 -0.68454713 0.15930247
-1.2685233 -0.68454713 0.079808727
-1.2710314 -0.68454713 4.5627395e-09
-1.2685233 -0.68454713 -0.079808719
-1.2610089 -0.68454713 -0.15930247
-1.2485179 -0.68454713 -0.23816752
-1.2310996 -0.68454713 -0.31609264
-1.2088227 -0.68454713 -0.39277029
-1.1817751 -0.68454713 -0.46789786
-1.1500636 -0.68454713 -0.54117882
-1.1138133 -0.68454713 -0.61232406
-1.0731673 -0.68454713 -0.68105268
-1.028286 -0.68454713 -0.7470935
-0.97934651 -0.68454713 -0.81018591
-0.92654198 -0.68454713 -0.87008083
-0.87008083 -0.68454713 -0.92654198
-0.81018591 -0.68454713 -0.97934651
-0.7470935 -0.68454713 -1.028286
-0.68105268 -0.68454713 -1.0731673
-0.61232406 -0.68454713 -1.1138133
-0.54117882 -0.68454713 -1.1500635
-0.46789786 -0.68454713 -1.1817751
-0.39277029 -0.68454713 -1.2088227
-0.31609267 -0.68454713 -1.2310996
-0.23816754 -0.68454713 -1.2485179
-0.15930247 -0.68454713 -1.2610089
-0.079808727 -0.68454713 -1.2685233
-6.8441093e-09 -0.68454713 -1.2710314
0.079808712 -0.68454713 -1.2685233
0.15930247 -0.68454713 -1.261009
0.23816752 -0.68454713 -1.2485179
0.31609264 -0.68454713 -1.2310996
0.39277029 -0.68454713 -1.2088227
0.46789786 -0.68454713 -1.1817751
0.54117882 -0.68454713 -1.1500636
0.61232406 -0.68454713 -1.1138133
0.68105268 -0.68454713 -1.0731673
0.7470935 -0.68454713 -1.028286
0.81018591 -0.68454713 -0.97934651
0.87008083 -0.68454713 -0.92654198
0.92654198 -0.68454713 -0.87008083
0.97934651 -0.68454713 -0.81018591
1.028286 -0.68454713 -0.7470935
1.0731673 -0.68454713 -0.68105268
1.1138133 -0.68454713 -0.61232406
1.1500635 -0.68454713 -0.54117882
1.1817751 -0.68454713 -0.46789786
1.2088227 -0.68454713 -0.39277029
1.2310996 -0.68454713 -0.31609267
1.2485179 -0.68454713 -0.23816754
1.2610089 -0.68454713 -0.15930249
1.2685233 -0.68454713 -0.079808727
1.3154529 -0.72896862 0
1.3128572 -0.72896862 0.082597971
1.3050802 -0.72896862 0.16486996
1.2921526 -0.72896862 0.2464913
1.2741256 -0.72896862 0.32713985
1.2510701 -0.72896862 0.4064973
1.2230772 -0.72896862 0.48425052
1.1902574 -0.72896862 0.56009263
1.1527402 -0.72896862 0.63372427
1.1106737 -0.72896862 0.70485491
1.0642238 -0.72896862 0.77320385
1.0135739 -0.72896862 0.83850127
0.95892394 -0.72896862 0.90048951
0.90048951 -0.72896862 0.95892394
0.83850127 -0.72896862 1.0135739
0.77320385 -0.72896862 1.0642238
0.70485491 -0.72896862 1.1106737
0.63372427 -0.72896862 1.1527402
0.56009263 -0.72896862 1.1902574
0.48425052 -0.72896862 1.2230772
0.4064973 -0.72896862 1.2510701
0.32713985 -0.72896862 1.2741256
0.2464913 -0.72896862 1.2921526
0.16486998 -0.72896862 1.3050802
0.082597978 -0.72896862 1.3128572
2.361102e-09 -0.72896862 1.3154529
-0.082597971 -0.72896862 1.3128572
-0.16486996 -0.72896862 1.3050802
-0.2464913 -0.72896862 1.2921526
-0.32713982 -0.72896862 1.2741256
-0.4064973 -0.72896862 1.2510701
-0.48425052 -0.72896862 1.2230772
-0.56009263 -0.72896862 1.1902574
-0.63372427 -0.72896862 1.1527402
-0.70485491 -0.72896862 1.1106737
-0.77320385 -0.72896862 1.0642238
-0.83850127 -0.72896862 1.0135739
-0.90048951 -0.72896862 0.95892394
-0.95892394 -0.72896862 0.90048951
-1.0135739 -0.72896862 0.83850127
-1.0642238 -0.72896862 0.77320385
-1.1106737 -0.72896862 0.70485491
-1.1527402 -0.72896862 0.63372427
-1.1902574 -0.72896862 0.56009263
-1.2230772 -0.72896862 0.48425052
-1.2510701 -0.72896862 0.40649733
-1.2741256 -0.72896862 0.32713985
-1.2921526 -0.72896862 0.2464913
-1.3050802 -0.72896862 0.16486998
-1.3128572 -0.72896862 0.082597978
-1.3154529 -0.72896862 4.722204e-09
-1.3128572 -0.72896862 -0.082597971
-1.3050802 -0.72896862 -0.16486996
-1.2921526 -0.72896862 -0.2464913
-1.2741256 -0.72896862 -0.32713982
-1.2510701 -0.72896862 -0.4064973
-1.2230772 -0.72896862 -0.48425052
-1.1902574 -0.72896862 -0.56009263
-1.1527402 -0.72896862 -0.63372427
-1.1106737 -0.72896862 -0.70485491
-1.0642238 -0.72896862 -0.77320385
-1.0135739 -0.72896862 -0.83850127
-0.95892394 -0.72896862 -0.90048951
-0.90048951 -0.72896862 -0.95892394
-0.83850127 -0.72896862 -1.0135739
-0.77320385 -0.72896862 -1.0642238
-0.70485491 -0.72896862 -1.1106737
-0.63372427 -0.72896862 -1.1527402
-0.56009263 -0.72896862 -1.1902574
-0.48425052 -0.72896862 -1.2230772
-0.40649733 -0.72896862 -1.25107
-0.32713985 -0.72896862 -1.2741256
-0.24649131 -0.72896862 -1.2921526
-0.16486998 -0.72896862 -1.3050802
-0.082597978 -0.72896862 -1.3128572
-7.0833055e-09 -0.72896862 -1.3154529
0.082597964 -0.72896862 -1.3128572
0.16486996 -0.72896862 -1.3050802
0.2464913 -0.72896862 -1.2921526
0.32713982 -0.72896862 -1.2741256
0.4064973 -0.72896862 -1.2510701
0.48425052 -0.72896862 -1.2230772
0.56009263 -0.72896862 -1.1902574
0.63372427 -0.72896862 -1.1527402
0.70485491 -0.72896862 -1.1106737
0.77320385 -0.72896862 -1.0642238
0.83850127 -0.72896862 -1.0135739
0.90048951 -0.72896862 -0.95892394
0.95892394 -0.72896862 -0.90048951
1.0135739 -0.72896862 -0.83850127
1.0642238 -0.72896862 -0.77320385
1.1106737 -0.72896862 -0.70485497
1.1527402 -0.72896862 -0.63372427
1.1902574 -0.72896862 -0.56009263
1.2230772 -0.72896862 -0.48425055
1.25107 -0.72896862 -0.40649733
1.2741256 -0.72896862 -0.32713985
1.2921526 -0.72896862 -0.24649131
1.3050802 -0.72896862 -0.16486998
1.3128572 -0.72896862 -0.082597986
1.362576 -0.77051324 0
1.3598872 -0.77051324 0.085556857
1.3518317 -0.77051324 0.17077605
1.338441 -0.77051324 0.25532129
1.3197682 -0.77051324 0.33885887
1.2958868 -0.77051324 0.42105913
1.2668911 -0.77051324 0.5015977
1.2328956 -0.77051324 0.58015662
1.1940345 -0.77051324 0.65642601
1.150461 -0.77051324 0.73010474
1.1023471 -0.77051324 0.80090207
1.0498829 -0.77051324 0.86853862
0.99327517 -0.77051324 0.93274748
0.93274748 -0.77051324 0.99327517
0.86853862 -0.77051324 1.0498829
0.80090207 -0.77051324 1.1023471
0.73010474 -0.77051324 1.150461
0.65642601 -0.77051324 1.1940345
0.58015662 -0.77051324 1.2328956
0.5015977 -0.77051324 1.2668911
0.42105913 -0.77051324 1.2958868
0.33885887 -0.77051324 1.3197682
0.25532129 -0.77051324 1.338441
0.17077605 -0.77051324 1.3518317
0.085556857 -0.77051324 1.3598872
2.445683e-09 -0.77051324 1.362576
-0.08555685 -0.77051324 1.3598872
-0.17077605 -0.77051324 1.3518317
-0.25532129 -0.77051324 1.338441
-0.33885887 -0.77051324 1.3197682
-0.42105913 -0.77051324 1.2958868
-0.5015977 -0.77051324 1.2668911
-0.58015662 -0.77051324 1.2328956
-0.65642601 -0.77051324 1.1940345
-0.73010474 -0.77051324 1.150461
-0.80090207 -0.77051324 1.1023471
-0.86853862 -0.77051324 1.0498829
-0.93274748 -0.77051324 0.99327517
-0.99327517 -0.77051324 0.93274748
-1.0498829 -0.77051324 0.86853862
-1.1023471 -0.77051324 0.80090207
-1.150461 -0.77051324 0.73010474
-1.1940345 -0.77051324 0.65642601
-1.2328956 -0.77051324 0.58015662
-1.2668911 -0.77051324 0.5015977
-1.2958868 -0.77051324 0.42105916
-1.3197682 -0.77051324 0.33885887
-1.338441 -0.77051324 0.25532129
-1.3518317 -0.77051324 0.17077605
-1.3598872 -0.77051324 0.085556857
-1.362576 -0.77051324 4.891366e-09
-1.3598872 -0.77051324 -0.08555685
-1.3518317 -0.77051324 -0.17077605
-1.338441 -0.77051324 -0.25532126
-1.3197682 -0.77051324 -0.33885887
-1.2958868 -0.77051324 -0.42105913
-1.2668911 -0.77051324 -0.5015977
-1.2328956 -0.77051324 -0.58015662
-1.1940345 -0.77051324 -0.65642601
-1.150461 -0.77051324 -0.73010474
-1.1023471 -0.77051324 -0.80090207
-1.0498829 -0.77051324 -0.86853862
-0.99327517 -0.77051324 -0.93274748
-0.93274748 -0.77051324 -0.99327517
-0.86853862 -0.77051324 -1.0498829
-0.80090207 -0.77051324 -1.1023471
-0.73010474 -0.77051324 -1.150461
-0.65642601 -0.77051324 -1.1940345
-0.58015662 -0.77051324 -1.2328956
-0.5015977 -0.77051324 -1.2668911
-0.42105916 -0.77051324 -1.2958868
-0.33885887 -0.77051324 -1.3197682
-0.25532129 -0.77051324 -1.338441
-0.17077607 -0.77051324 -1.3518317
-0.085556865 -0.77051324 -1.3598872
-7.3370483e-09 -0.77051324 -1.362576
0.08555685 -0.77051324 -1.3598872
0.17077605 -0.77051324 -1.3518317
0.25532126 -0.77051324 -1.338441
0.33885887 -0.77051324 -1.3197682
0.42105913 -0.77051324 -1.2958868
0.5015977 -0.77051324 -1.2668911
0.58015662 -0.77051324 -1.2328956
0.65642601 -0.77051324 -1.1940345
0.73010474 -0.77051324 -1.150461
0.80090207 -0.77051324 -1.1023471
0.86853862 -0.77051324 -1.0498829
0.93274748 -0.77051324 -0.99327517
0.99327517 -0.77051324 -0.93274748
1.0498829 -0.77051324 -0.86853862
1.1023471 -0.77051324 -0.80090207
1.150461 -0.77051324 -0.73010474
1.1940345 -0.77051324 -0.65642601
1.2328956 -0.77051324 -0.58015668
1.2668911 -0.77051324 -0.5015977
1.2958868 -0.77051324 -0.42105916
1.3197682 -0.77051324 -0.33885887
1.338441 -0.77051324 -0.25532129
1.3518317 -0.77051324 -0.17077607
1.3598872 -0.77051324 -0.085556865
1.4122148 -0.809017 0
1.4094281 -0.809017 0.088673696
1.4010791 -0.809017 0.17699744
1.3872006 -0.809017 0.26462266
1.3678474 -0.809017 0.35120353
1.343096 -0.809017 0.43639836
1.3130441 -0.809017 0.51987094
1.2778101 -0.809017 0.60129178
1.2375332 -0.809017 0.68033963
1.1923723 -0.809017 0.75670248
1.1425058 -0.809017 0.83007902
1.0881301 -0.809017 0.90017956
1.0294603 -0.809017 0.9667275
0.96672755 -0.809017 1.0294603
0.90017956 -0.809017 1.0881301
0.83007902 -0.809017 1.1425058
0.75670248 -0.809017 1.1923723
0.68033963 -0.809017 1.2375332
0.60129178 -0.809017 1.2778101
0.51987094 -0.809017 1.3130441
0.43639836 -0.809017 1.343096
0.35120353 -0.809017 1.3678474
0.26462266 -0.809017 1.3872006
0.17699744 -0.809017 1.4010791
0.088673703 -0.809017 1.4094281
2.5347793e-09 -0.809017 1.4122148
-0.088673696 -0.809017 1.4094281
-0.17699744 -0.809017 1.4010791
-0.26462266 -0.809017 1.3872006
-0.35120353 -0.809017 1.3678474
-0.43639836 -0.809017 1.343096
-0.51987094 -0.809017 1.3130441
-0.60129178 -0.809017 1.2778101
-0.68033963 -0.809017 1.2375332
-0.75670248 -0.809017 1.1923723
-0.83007902 -0.809017 1.1425058
-0.90017956 -0.809017 1.0881301
-0.9667275 -0.809017 1.0294603
-1.0294602 -0.809017 0.96672755
-1.0881301 -0.809017 0.90017956
-1.1425058 -0.809017 0.83007902
-1.1923723 -0.809017 0.75670248
-1.2375332 -0.809017 0.68033963
-1.2778101 -0.809017 0.60129178
-1.3130441 -0.809017 0.51987094
-1.343096 -0.809017 0.43639836
-1.3678474 -0.809017 0.35120353
-1.3872006 -0.809017 0.26462266
-1.4010791 -0.809017 0.17699745
-1.4094281 -0.809017 0.088673703
-1.4122148 -0.809017 5.0695586e-09
-1.4094281 -0.809017 -0.088673696
-1.4010791 -0.809017 -0.17699744
-1.3872006 -0.809017 -0.26462266
-1.3678474 -0.809017 -0.35120353
-1.343096 -0.809017 -0.43639836
-1.3130441 -0.809017 -0.51987094
-1.2778101 -0.809017 -0.60129178
-1.2375332 -0.809017 -0.68033963
-1.1923723 -0.809017 -0.75670248
-1.1425058 -0.809017 -0.83007902
-1.0881301 -0.809017 -0.90017956
-1.0294603 -0.809017 -0.9667275
-0.96672755 -0.809017 -1.0294602
-0.90017956 -0.809017 -1.0881301
-0.83007902 -0.809017 -1.1425058
-0.75670248 -0.809017 -1.1923723
-0.68033963 -0.809017 -1.2375332
-0.60129178 -0.809017 -1.2778101
-0.51987094 -0.809017 -1.3130441
-0.43639836 -0.809017 -1.343096
-0.35120353 -0.809017 -1.3678474
-0.26462266 -0.809017 -1.3872006
-0.17699745 -0.809017 -1.4010791
-0.088673703 -0.809017 -1.4094281
-7.6043376e-09 -0.809017 -1.4122148
0.088673688 -0.809017 -1.4094281
0.17699744 -0.809017 -1.4010791
0.26462266 -0.809017 -1.3872006
0.35120353 -0.809017 -1.3678474
0.43639836 -0.809017 -1.343096
0.51987094 -0.809017 -1.3130441
0.60129178 -0.809017 -1.2778101
0.68033963 -0.809017 -1.2375332
0.75670248 -0.809017 -1.1923723
0.83007902 -0.809017 -1.1425058
0.90017956 -0.809017 -1.0881302
0.9667275 -0.809017 -1.0294603
1.0294602 -0.809017 -0.96672755
1.0881301 -0.809017 -0.90017956
1.1425058 -0.809017 -0.83007902
1.1923723 -0.809017 -0.75670254
1.2375332 -0.809017 -0.68033963
1.2778101 -0.809017 -0.60129184
1.3130441 -0.809017 -0.51987094
1.343096 -0.809017 -0.43639836
1.3678474 -0.809017 -0.35120353
1.3872006 -0.809017 -0.26462266
1.4010791 -0.809017 -0.17699745
1.4094281 -0.809017 -0.088673711
1.4641732 -0.84432793 0
1.461284 -0.84432793 0.091936193
1.4526278 -0.84432793 0.18350956
1.4382386 -0.84432793 0.27435869
1.4181736 -0.84432793 0.36412507
1.3925115 -0.84432793 0.45245439
1.3613538 -0.84432793 0.53899813
1.3248235 -0.84432793 0.62341464
1.2830647 -0.84432793 0.70537084
1.2362423 -0.84432793 0.78454322
1.184541 -0.84432793 0.86061943
1.1281649 -0.84432793 0.93329912
1.0673363 -0.84432793 1.0022955
1.0022955 -0.84432793 1.0673363
0.93329912 -0.84432793 1.1281649
0.86061943 -0.84432793 1.184541
0.78454322 -0.84432793 1.2362423
0.70537084 -0.84432793 1.2830647
0.62341464 -0.84432793 1.3248235
0.53899813 -0.84432793 1.3613538
0.45245439 -0.84432793 1.3925115
0.36412507 -0.84432793 1.4181736
0.27435869 -0.84432793 1.4382386
0.18350956 -0.84432793 1.4526278
0.091936201 -0.84432793 1.461284
2.6280393e-09 -0.84432793 1.4641732
-0.091936193 -0.84432793 1.461284
-0.18350956 -0.84432793 1.4526278
-0.27435869 -0.84432793 1.4382386
-0.36412507 -0.84432793 1.4181736
-0.45245439 -0.84432793 1.3925115
-0.53899813 -0.84432793 1.3613538
-0.62341464 -0.84432793 1.3248235
-0.70537084 -0.84432793 1.2830647
-0.78454322 -0.84432793 1.2362423
-0.86061943 -0.84432793 1.184541
-0.93329912 -0.84432793 1.1281649
-1.0022955 -0.84432793 1.0673363
-1.0673363 -0.84432793 1.0022955
-1.1281649 -0.84432793 0.93329912
-1.184541 -0.84432793 0.86061943
-1.2362423 -0.84432793 0.78454322
-1.2830647 -0.84432793 0.70537084
-1.3248235 -0.84432793 0.62341464
-1.3613538 -0.84432793 0.53899813
-1.3925115 -0.84432793 0.45245442
-1.4181736 -0.84432793 0.36412507
-1.4382386 -0.84432793 0.27435869
-1.4526278 -0.84432793 0.18350957
-1.461284 -0.84432793 0.091936201
-1.4641732 -0.84432793 5.2560787e-09
-1.461284 -0.84432793 -0.091936193
-1.4526278 -0.84432793 -0.18350956
-1.4382386 -0.84432793 -0.27435869
-1.4181736 -0.84432793 -0.36412507
-1.3925115 -0.84432793 -0.45245439
-1.3613538 -0.84432793 -0.53899813
-1.3248235 -0.84432793 -0.62341464
-1.2830647 -0.84432793 -0.70537078
-1.2362423 -0.84432793 -0.78454322
-1.184541 -0.84432793 -0.86061943
-1.1281649 -0.84432793 -0.93329912
-1.0673363 -0.84432793 -1.0022955
-1.0022955 -0.84432793 -1.0673363
-0.93329912 -0.84432793 -1.1281649
-0.86061943 -0.84432793 -1.184541
-0.78454322 -0.84432793 -1.2362423
-0.70537084 -0.84432793 -1.2830647
-0.62341464 -0.84432793 -1.3248235
-0.53899813 -0.84432793 -1.3613538
-0.45245442 -0.84432793 -1.3925115
-0.36412507 -0.84432793 -1.4181736
-0.27435872 -0.84432793 -1.4382386
-0.18350957 -0.84432793 -1.4526278
-0.091936201 -0.84432793 -1.461284
-7.8841174e-09 -0.84432793 -1.4641732
0.091936186 -0.84432793 -1.461284
0.18350956 -0.84432793 -1.4526278
0.27435869 -0.84432793 -1.4382386
0.36412507 -0.84432793 -1.4181736
0.45245439 -0.84432793 -1.3925115
0.53899807 -0.84432793 -1.3613538
0.62341464 -0.84432793 -1.3248235
0.70537078 -0.84432793 -1.2830647
0.78454322 -0.84432793 -1.2362423
0.86061943 -0.84432793 -1.184541
0.93329912 -0.84432793 -1.1281649
1.0022955 -0.84432793 -1.0673363
1.0673363 -0.84432793 -1.0022955
1.1281649 -0.84432793 -0.93329912
1.184541 -0.84432793 -0.86061943
1.2362423 -0.84432793 -0.78454322
1.2830647 -0.84432793 -0.70537084
1.3248235 -0.84432793 -0.62341464
1.3613538 -0.84432793 -0.53899813
1.3925115 -0.84432793 -0.45245442
1.4181736 -0.84432793 -0.36412507
1.4382386 -0.84432793 -0.27435872
1.4526278 -0.84432793 -0.18350957
1.461284 -0.84432793 -0.091936208
1.5182463 -0.87630665 0
1.5152503 -0.87630665 0.095331475
1.5062745 -0.87630665 0.19028671
1.491354 -0.87630665 0.28449097
1.4705478 -0.87630665 0.37757251
1.443938 -0.87630665 0.46916389
1.4116297 -0.87630665 0.55890375
1.3737503 -0.87630665 0.64643782
1.3304493 -0.87630665 0.73142076
1.2818978 -0.87630665 0.81351703
1.2282871 -0.87630665 0.89240277
1.1698289 -0.87630665 0.96776658
1.1067539 -0.87630665 1.0393111
1.0393111 -0.87630665 1.1067539
0.96776658 -0.87630665 1.1698289
0.89240277 -0.87630665 1.2282871
0.81351703 -0.87630665 1.2818978
0.73142076 -0.87630665 1.3304493
0.64643782 -0.87630665 1.3737503
0.55890375 -0.87630665 1.4116297
0.46916389 -0.87630665 1.443938
0.37757251 -0.87630665 1.4705478
0.284491 -0.87630665 1.491354
0.19028673 -0.87630665 1.5062745
0.095331475 -0.87630665 1.5152503
2.725095e-09 -0.87630665 1.5182463
-0.095331468 -0.87630665 1.5152503
-0.19028671 -0.87630665 1.5062745
-0.28449097 -0.87630665 1.491354
-0.37757251 -0.87630665 1.4705478
-0.46916389 -0.87630665 1.443938
-0.55890375 -0.87630665 1.4116297
-0.64643782 -0.87630665 1.3737503
-0.73142076 -0.87630665 1.3304493
-0.81351703 -0.87630665 1.2818978
-0.89240277 -0.87630665 1.2282871
-0.96776658 -0.87630665 1.1698289
-1.0393111 -0.87630665 1.1067539
-1.1067539 -0.87630665 1.0393111
-1.1698289 -0.87630665 0.96776664
-1.2282871 -0.87630665 0.89240277
-1.2818978 -0.87630665 0.81351703
-1.3304493 -0.87630665 0.73142076
-1.3737503 -0.87630665 0.64643782
-1.4116297 -0.87630665 0.55890375
-1.443938 -0.87630665 0.46916392
-1.4705478 -0.87630665 0.37757251
-1.491354 -0.87630665 0.284491
-1.5062745 -0.87630665 0.19028673
-1.5152503 -0.87630665 0.095331475
-1.5182463 -0.87630665 5.4501901e-09
-1.5152503 -0.87630665 -0.095331468
-1.5062745 -0.87630665 -0.19028671
-1.491354 -0.87630665 -0.28449097
-1.4705478 -0.87630665 -0.37757251
-1.443938 -0.87630665 -0.46916389
-1.4116297 -0.87630665 -0.55890375
-1.3737503 -0.87630665 -0.64643782
-1.3304493 -0.87630665 -0.7314207
-1.2818978 -0.87630665 -0.81351703
-1.2282871 -0.87630665 -0.89240277
-1.1698289 -0.87630665 -0.96776658
-1.1067539 -0.87630665 -1.0393111
-1.0393112 -0.87630665 -1.1067539
-0.96776664 -0.87630665 -1.1698289
-0.89240277 -0.87630665 -1.2282871
-0.81351703 -0.87630665 -1.2818978
-0.73142076 -0.87630665 -1.3304493
-0.64643782 -0.87630665 -1.3737503
-0.55890375 -0.87630665 -1.4116297
-0.46916392 -0.87630665 -1.443938
-0.37757251 -0.87630665 -1.4705478
-0.284491 -0.87630665 -1.491354
-0.19028673 -0.87630665 -1.5062745
-0.095331483 -0.87630665 -1.5152503
-8.1752844e-09 -0.87630665 -1.5182463
0.095331468 -0.87630665 -1.5152503
0.19028671 -0.87630665 -1.5062745
0.28449097 -0.87630665 -1.491354
0.37757248 -0.87630665 -1.4705478
0.46916389 -0.87630665 -1.443938
0.55890375 -0.87630665 -1.4116297
0.64643782 -0.87630665 -1.3737503
0.7314207 -0.87630665 -1.3304493
0.81351703 -0.87630665 -1.2818978
0.89240277 -0.87630665 -1.2282871
0.96776658 -0.87630665 -1.1698289
1.0393111 -0.87630665 -1.1067539
1.1067539 -0.87630665 -1.0393112
1.1698289 -0.87630665 -0.96776664
1.2282871 -0.87630665 -0.89240277
1.2818978 -0.87630665 -0.81351703
1.3304493 -0.87630665 -0.73142076
1.3737503 -0.87630665 -0.64643782
1.4116297 -0.87630665 -0.55890375
1.443938 -0.87630665 -0.46916392
1.4705478 -0.87630665 -0.37757251
1.491354 -0.87630665 -0.284491
1.5062745 -0.87630665 -0.19028673
1.5152503 -0.87630665 -0.095331483
1.5742207 -0.90482706 0
1.5711143 -0.90482706 0.09884613
1.5618075 -0.90482706 0.19730216
1.5463369 -0.90482706 0.29497954
1.5247636 -0.90482706 0.39149275
1.4971728 -0.90482706 0.48646092
1.4636734 -0.90482706 0.57950926
1.4243975 -0.90482706 0.67027056
1.3795 -0.90482706 0.75838661
1.3291584 -0.90482706 0.84350961
1.2735713 -0.90482706 0.9253037
1.2129579 -0.90482706 1.003446
1.1475575 -0.90482706 1.0776281
1.0776283 -0.90482706 1.1475575
1.003446 -0.90482706 1.2129579
0.9253037 -0.90482706 1.2735713
0.84350961 -0.90482706 1.3291584
0.75838661 -0.90482706 1.3795
0.67027056 -0.90482706 1.4243975
0.57950926 -0.90482706 1.4636734
0.48646092 -0.90482706 1.4971728
0.39149275 -0.90482706 1.5247636
0.29497954 -0.90482706 1.5463369
0.19730216 -0.90482706 1.5618075
0.098846138 -0.90482706 1.5711143
2.8255631e-09 -0.90482706 1.5742207
-0.09884613 -0.90482706 1.5711143
-0.19730216 -0.90482706 1.5618075
-0.29497954 -0.90482706 1.5463369
-0.39149275 -0.90482706 1.5247636
-0.48646092 -0.90482706 1.4971728
-0.57950926 -0.90482706 1.4636734
-0.67027056 -0.90482706 1.4243975
-0.75838661 -0.90482706 1.3795
-0.84350961 -0.90482706 1.3291584
-0.9253037 -0.90482706 1.2735713
-1.003446 -0.90482706 1.2129579
-1.0776281 -0.90482706 1.1475575
-1.1475575 -0.90482706 1.0776283
-1.2129579 -0.90482706 1.003446
-1.2735713 -0.90482706 0.9253037
-1.3291584 -0.90482706 0.84350961
-1.3795 -0.90482706 0.75838661
-1.4243975 -0.90482706 0.67027056
-1.4636734 -0.90482706 0.57950926
-1.4971728 -0.90482706 0.48646095
-1.5247636 -0.90482706 0.39149275
-1.5463369 -0.90482706 0.29497954
-1.5618075 -0.90482706 0.19730218
-1.5711143 -0.90482706 0.098846138
-1.5742207 -0.90482706 5.6511262e-09
-1.5711143 -0.90482706 -0.09884613
-1.5618075 -0.90482706 -0.19730216
-1.5463369 -0.90482706 -0.29497954
-1.5247636 -0.90482706 -0.39149275
-1.4971728 -0.90482706 -0.48646092
-1.4636734 -0.90482706 -0.57950926
-1.4243975 -0.90482706 -0.67027056
-1.3795 -0.90482706 -0.75838655
-1.3291584 -0.90482706 -0.84350961
-1.2735713 -0.90482706 -0.9253037
-1.2129579 -0.90482706 -1.003446
-1.1475575 -0.90482706 -1.0776281
-1.0776283 -0.90482706 -1.1475575
-1.003446 -0.90482706 -1.2129579
-0.9253037 -0.90482706 -1.2735713
-0.84350961 -0.90482706 -1.3291584
-0.75838661 -0.90482706 -1.3795
-0.67027056 -0.90482706 -1.4243975
-0.57950926 -0.90482706 -1.4636734
-0.48646095 -0.90482706 -1.4971728
-0.39149275 -0.90482706 -1.5247636
-0.29497954 -0.90482706 -1.5463369
-0.19730218 -0.90482706 -1.5618075
-0.098846145 -0.90482706 -1.5711143
-8.4766896e-09 -0.90482706 -1.5742207
0.098846123 -0.90482706 -1.5711143
0.19730216 -0.90482706 -1.5618075
0.29497951 -0.90482706 -1.5463369
0.39149275 -0.90482706 -1.5247636
0.48646092 -0.90482706 -1.4971728
0.57950926 -0.90482706 -1.4636734
0.67027056 -0.90482706 -1.4243975
0.75838655 -0.90482706 -1.3795
0.84350961 -0.90482706 -1.3291584
0.9253037 -0.90482706 -1.2735713
1.003446 -0.90482706 -1.2129579
1.0776281 -0.90482706 -1.1475575
1.1475575 -0.90482706 -1.0776283
1.2129579 -0.90482706 -1.003446
1.2735713 -0.90482706 -0.9253037
1.3291584 -0.90482706 -0.84350961
1.3795 -0.90482706 -0.75838661
1.4243975 -0.90482706 -0.67027056
1.4636734 -0.90482706 -0.57950926
1.4971728 -0.90482706 -0.48646095
1.5247636 -0.90482706 -0.39149275
1.5463369 -0.90482706 -0.29497954
1.5618075 -0.90482706 -0.19730218
1.5711143 -0.90482706 -0.098846145
1.6318754 -0.92977649 0
1.6286553 -0.92977649 0.1024663
1.6190076 -0.92977649 0.20452821
1.6029704 -0.92977649 0.30578294
1.5806071 -0.92977649 0.40583092
1.5520058 -0.92977649 0.50427723
1.5172794 -0.92977649 0.6007334
1.476565 -0.92977649 0.69481874
1.4300233 -0.92977649 0.78616196
1.377838 -0.92977649 0.87440258
1.320215 -0.92977649 0.95919228
1.2573816 -0.92977649 1.0401965
1.1895859 -0.92977649 1.1170956
1.1170956 -0.92977649 1.1895859
1.0401965 -0.92977649 1.2573816
0.95919228 -0.92977649 1.3202149
0.87440258 -0.92977649 1.377838
0.78616196 -0.92977649 1.4300233
0.69481874 -0.92977649 1.476565
0.6007334 -0.92977649 1.5172794
0.50427723 -0.92977649 1.5520058
0.40583092 -0.92977649 1.5806071
0.30578297 -0.92977649 1.6029704
0.20452823 -0.92977649 1.6190076
0.10246631 -0.92977649 1.6286553
2.9290474e-09 -0.92977649 1.6318754
-0.1024663 -0.92977649 1.6286553
-0.20452821 -0.92977649 1.6190076
-0.30578294 -0.92977649 1.6029704
-0.40583089 -0.92977649 1.5806071
-0.50427723 -0.92977649 1.5520058
-0.6007334 -0.92977649 1.5172794
-0.69481874 -0.92977649 1.476565
-0.78616196 -0.92977649 1.4300233
-0.87440258 -0.92977649 1.377838
-0.95919228 -0.92977649 1.320215
-1.0401965 -0.92977649 1.2573816
-1.1170956 -0.92977649 1.1895859
-1.1895859 -0.92977649 1.1170956
-1.2573816 -0.92977649 1.0401965
-1.3202149 -0.92977649 0.95919228
-1.377838 -0.92977649 0.87440258
-1.4300233 -0.92977649 0.78616196
-1.476565 -0.92977649 0.69481874
-1.5172794 -0.92977649 0.6007334
-1.5520058 -0.92977649 0.50427723
-1.5806071 -0.92977649 0.40583092
-1.6029704 -0.92977649 0.30578297
-1.6190076 -0.92977649 0.20452823
-1.6286553 -0.92977649 0.10246631
-1.6318754 -0.92977649 5.8580949e-09
-1.6286553 -0.92977649 -0.1024663
-1.6190076 -0.92977649 -0.20452821
-1.6029704 -0.92977649 -0.30578294
-1.5806071 -0.92977649 -0.40583089
-1.5520058 -0.92977649 -0.50427723
-1.5172794 -0.92977649 -0.6007334
-1.476565 -0.92977649 -0.69481874
-1.4300233 -0.92977649 -0.78616196
-1.377838 -0.92977649 -0.87440258
-1.320215 -0.92977649 -0.95919228
-1.2573816 -0.92977649 -1.0401965
-1.1895859 -0.92977649 -1.1170956
-1.1170956 -0.92977649 -1.1895859
-1.0401965 -0.92977649 -1.2573816
-0.95919228 -0.92977649 -1.3202149
-0.87440258 -0.92977649 -1.377838
-0.78616196 -0.92977649 -1.4300233
-0.69481874 -0.92977649 -1.476565
-0.6007334 -0.92977649 -1.5172794
-0.50427723 -0.92977649 -1.5520058
-0.40583092 -0.92977649 -1.5806071
-0.30578297 -0.92977649 -1.6029704
-0.20452823 -0.92977649 -1.6190076
-0.10246632 -0.92977649 -1.6286553
-8.7871417e-09 -0.92977649 -1.6318754
0.10246629 -0.92977649 -1.6286553
0.20452821 -0.92977649 -1.6190076
0.30578294 -0.92977649 -1.6029704
0.40583089 -0.92977649 -1.5806071
0.50427723 -0.92977649 -1.5520058
0.6007334 -0.92977649 -1.5172794
0.69481874 -0.92977649 -1.476565
0.78616196 -0.92977649 -1.4300233
0.87440258 -0.92977649 -1.377838
0.95919228 -0.92977649 -1.320215
1.0401965 -0.92977649 -1.2573816
1.1170956 -0.92977649 -1.1895859
1.1895859 -0.92977649 -1.1170956
1.2573816 -0.92977649 -1.0401965
1.3202149 -0.92977649 -0.95919228
1.377838 -0.92977649 -0.87440258
1.4300233 -0.92977649 -0.78616196
1.476565 -0.92977649 -0.69481874
1.5172794 -0.92977649 -0.6007334
1.5520058 -0.92977649 -0.50427723
1.5806071 -0.92977649 -0.40583092
1.6029704 -0.92977649 -0.30578297
1.6190076 -0.92977649 -0.20452823
1.6286553 -0.92977649 -0.10246632
1.6909831 -0.95105654 0
1.6876463 -0.95105654 0.1061777
1.6776491 -0.95105654 0.21193637
1.6610311 -0.95105654 0.31685862
1.6378577 -0.95105654 0.42053038
1.6082205 -0.95105654 0.52254248
1.5722363 -0.95105654 0.62249237
1.5300472 -0.95105654 0.71998554
1.4818197 -0.95105654 0.8146373
1.4277443 -0.95105654 0.90607405
1.368034 -0.95105654 0.99393493
1.3029249 -0.95105654 1.0778731
1.2326736 -0.95105654 1.1575576
1.1575576 -0.95105654 1.2326736
1.0778731 -0.95105654 1.3029249
0.99393493 -0.95105654 1.368034
0.90607405 -0.95105654 1.4277443
0.8146373 -0.95105654 1.4818197
0.71998554 -0.95105654 1.5300472
0.62249237 -0.95105654 1.5722363
0.52254248 -0.95105654 1.6082205
0.42053038 -0.95105654 1.6378577
0.31685862 -0.95105654 1.6610311
0.21193638 -0.95105654 1.6776491
0.10617771 -0.95105654 1.6876463
3.0351397e-09 -0.95105654 1.6909831
-0.1061777 -0.95105654 1.6876463
-0.21193637 -0.95105654 1.6776491
-0.31685862 -0.95105654 1.6610311
-0.42053038 -0.95105654 1.6378577
-0.52254248 -0.95105654 1.6082205
-0.62249237 -0.95105654 1.5722363
-0.71998554 -0.95105654 1.5300472
-0.8146373 -0.95105654 1.4818197
-0.90607405 -0.95105654 1.4277443
-0.99393487 -0.95105654 1.368034
-1.0778731 -0.95105654 1.3029249
-1.1575576 -0.95105654 1.2326736
-1.2326736 -0.95105654 1.1575576
-1.3029249 -0.95105654 1.0778732
-1.368034 -0.95105654 0.99393493
-1.4277443 -0.95105654 0.90607405
-1.4818197 -0.95105654 0.8146373
-1.5300472 -0.95105654 0.71998554
-1.5722363 -0.95105654 0.62249237
-1.6082205 -0.95105654 0.52254254
-1.6378577 -0.95105654 0.42053038
-1.6610311 -0.95105654 0.31685862
-1.6776491 -0.95105654 0.21193638
-1.6876463 -0.95105654 0.10617771
-1.6909831 -0.95105654 6.0702794e-09
-1.6876463 -0.95105654 -0.1061777
-1.6776491 -0.95105654 -0.21193637
-1.6610311 -0.95105654 -0.31685862
-1.6378577 -0.95105654 -0.42053038
-1.6082205 -0.95105654 -0.52254248
-1.5722363 -0.95105654 -0.62249237
-1.5300472 -0.95105654 -0.71998554
-1.4818197 -0.95105654 -0.8146373
-1.4277443 -0.95105654 -0.90607405
-1.368034 -0.95105654 -0.99393487
-1.3029249 -0.95105654 -1.0778731
-1.2326736 -0.95105654 -1.1575576
-1.1575576 -0.95105654 -1.2326736
-1.0778732 -0.95105654 -1.3029249
-0.99393493 -0.95105654 -1.368034
-0.90607405 -0.95105654 -1.4277443
-0.8146373 -0.95105654 -1.4818197
-0.7199856 -0.95105654 -1.5300472
-0.62249237 -0.95105654 -1.5722363
-0.52254254 -0.95105654 -1.6082205
-0.42053041 -0.95105654 -1.6378577
-0.31685865 -0.95105654 -1.6610311
-0.21193638 -0.95105654 -1.6776491
-0.10617771 -0.95105654 -1.6876463
-9.1054186e-09 -0.95105654 -1.6909831
0.1061777 -0.95105654 -1.6876463
0.21193637 -0.95105654 -1.6776491
0.31685862 -0.95105654 -1.6610311
0.42053038 -0.95105654 -1.6378577
0.52254248 -0.95105654 -1.6082205
0.62249237 -0.95105654 -1.5722363
0.71998554 -0.95105654 -1.5300472
0.8146373 -0.95105654 -1.4818197
0.90607405 -0.95105654 -1.4277443
0.99393487 -0.95105654 -1.368034
1.0778731 -0.95105654 -1.3029249
1.1575576 -0.95105654 -1.2326736
1.2326736 -0.95105654 -1.1575576
1.3029249 -0.95105654 -1.0778732
1.368034 -0.95105654 -0.99393493
1.4277443 -0.95105654 -0.90607405
1.4818197 -0.95105654 -0.8146373
1.5300472 -0.95105654 -0.7199856
1.5722363 -0.95105654 -0.62249237
1.6082205 -0.95105654 -0.52254254
1.6378577 -0.95105654 -0.42053041
1.6610311 -0.95105654 -0.31685865
1.6776491 -0.95105654 -0.21193638
1.6876463 -0.95105654 -0.10617772
1.7513101 -0.96858317 0
1.7478544 -0.96858317 0.10996567
1.7375005 -0.96858317 0.21949735
1.7202896 -0.96858317 0.32816279
1.6962895 -0.96858317 0.43553311
1.6655949 -0.96858317 0.5411846
1.628327 -0.96858317 0.64470023
1.5846328 -0.96858317 0.74567157
1.5346848 -0.96858317 0.84370005
1.47868 -0.96858317 0.9383989
1.4168396 -0.96858317 1.0293943
1.3494077 -0.96858317 1.116327
1.2766501 -0.96858317 1.1988542
1.1988543 -0.96858317 1.2766501
1.116327 -0.96858317 1.3494077
1.0293943 -0.96858317 1.4168396
0.9383989 -0.96858317 1.47868
0.84370011 -0.96858317 1.5346848
0.74567157 -0.96858317 1.5846328
0.64470023 -0.96858317 1.628327
0.5411846 -0.96858317 1.6655949
0.43553311 -0.96858317 1.6962895
0.32816279 -0.96858317 1.7202896
